1.8319363594055176 -0.6929275393486023 -0.76643306016922 1.0 0.0 0.0
2.0153257846832275 -0.5042247772216797 -0.7479678392410278 1.0 0.0 0.0
2.0907368659973145 0.4541698098182678 -0.706416130065918 1.0 0.0 0.0
1.8194456100463867 0.3908831775188446 -0.19204503297805786 1.0 0.0 0.0
2.023545026779175 0.5769397616386414 -0.7058836221694946 1.0 0.0 0.0
1.787904143333435 0.5186645984649658 -0.1890941560268402 1.0 0.0 0.0
1.674239993095398 0.6338678002357483 -0.18964751064777374 1.0 0.0 0.0
0.10114262253046036 0.30866527557373047 0.317037969827652 1.0 0.0 0.0
1.7845243215560913 0.7991650104522705 -0.7121334075927734 1.0 0.0 0.0
1.5541176795959473 0.7448638677597046 -0.19061656296253204 1.0 0.0 0.0
1.610353708267212 0.8995130062103271 -0.7190170884132385 1.0 0.0 0.0
1.363092064857483 0.8474497199058533 -0.19452980160713196 1.0 0.0 0.0
-0.034491121768951416 0.5705639719963074 0.32216116786003113 1.0 0.0 0.0
1.6319679021835327 -0.7122900485992432 -0.32701370120048523 1.0 0.0 0.0
1.997704267501831 -0.36667129397392273 -0.2958570122718811 1.0 0.0 0.0
2.038374662399292 -0.2255994975566864 -0.2875283360481262 1.0 0.0 0.0
2.05427885055542 -0.08972544223070145 -0.28046444058418274 1.0 0.0 0.0
2.050887107849121 0.046605050563812256 -0.2742087244987488 1.0 0.0 0.0
-0.265018105506897 -0.36681249737739563 0.2027522474527359 1.0 0.0 0.0
2.077338933944702 0.19639022648334503 -0.7962107062339783 1.0 0.0 0.0
2.061199426651001 0.17677956819534302 -0.26770779490470886 1.0 0.0 0.0
2.079843521118164 0.32892319560050964 -0.789391040802002 1.0 0.0 0.0
2.0355281829833984 0.30892428755760193 -0.26259714365005493 1.0 0.0 0.0
2.0871472358703613 0.461960107088089 -0.7823022603988647 1.0 0.0 0.0
2.007272243499756 0.43672409653663635 -0.25782686471939087 1.0 0.0 0.0
2.055814743041992 0.5889033675193787 -0.7780106067657471 1.0 0.0 0.0
1.9252042770385742 0.552653968334198 -0.25581011176109314 1.0 0.0 0.0
1.9579590559005737 0.7067143321037292 -0.7784321308135986 1.0 0.0 0.0
1.8185988664627075 0.823855459690094 -0.7815656661987305 1.0 0.0 0.0
0.2246716171503067 0.5774179100990295 0.25122323632240295 1.0 0.0 0.0
1.9771935939788818 -0.8030587434768677 -0.7071220874786377 1.0 0.0 0.0
1.687752366065979 -0.8638421297073364 -0.17848993837833405 1.0 0.0 0.0
2.0997908115386963 -0.650543749332428 -0.6923813223838806 1.0 0.0 0.0
1.9263240098953247 -0.6886723041534424 -0.16183297336101532 1.0 0.0 0.0
1.9570094347000122 -0.5492897629737854 -0.1544390171766281 1.0 0.0 0.0
2.140133857727051 -0.37743082642555237 -0.6768189668655396 1.0 0.0 0.0
2.0201120376586914 -0.4063431918621063 -0.1457223892211914 1.0 0.0 0.0
2.1486997604370117 -0.2429586946964264 -0.6699150204658508 1.0 0.0 0.0
2.022761344909668 -0.27190542221069336 -0.13964445888996124 1.0 0.0 0.0
2.155454635620117 -0.10500609129667282 -0.6629995703697205 1.0 0.0 0.0
2.0219693183898926 -0.13807637989521027 -0.13374587893486023 1.0 0.0 0.0
2.143862009048462 0.026538938283920288 -0.6575478315353394 1.0 0.0 0.0
2.0198166370391846 -0.000583567307330668 -0.12778379023075104 1.0 0.0 0.0
2.134805917739868 0.15832529962062836 -0.6519731879234314 1.0 0.0 0.0
1.9949692487716675 0.13018296658992767 -0.1229785606265068 1.0 0.0 0.0
2.1207234859466553 0.28951647877693176 -0.6467897295951843 1.0 0.0 0.0
1.921116590499878 0.2560427486896515 -0.12022258341312408 1.0 0.0 0.0
2.0557775497436523 0.415835440158844 -0.6449363231658936 1.0 0.0 0.0
1.8678555488586426 0.3847416639328003 -0.11662859469652176 1.0 0.0 0.0
1.933348536491394 0.5415748953819275 -0.6466025114059448 1.0 0.0 0.0
1.7178934812545776 0.504950225353241 -0.1169947013258934 1.0 0.0 0.0
1.7384998798370361 0.6584199666976929 -0.6530792117118835 1.0 0.0 0.0
1.5104390382766724 0.6258931756019592 -0.11948267370462418 1.0 0.0 0.0
1.1979475021362305 0.7501090168952942 -0.6814958453178406 1.0 0.0 0.0
1.7903382778167725 -0.7595177292823792 -0.3232092559337616 1.0 0.0 0.0
1.9067496061325073 -0.6112320423126221 -0.31177523732185364 1.0 0.0 0.0
1.9463157653808594 -0.4710048735141754 -0.30362844467163086 1.0 0.0 0.0
2.0904057025909424 -0.32305893301963806 -0.29124724864959717 1.0 0.0 0.0
2.1218461990356445 -0.18521404266357422 -0.2835944592952728 1.0 0.0 0.0
-0.19626455008983612 -0.37286823987960815 0.22778159379959106 1.0 0.0 0.0
2.111912488937378 -0.04640590772032738 -0.27748867869377136 1.0 0.0 0.0
-0.2550621032714844 -0.22375483810901642 0.2336682379245758 1.0 0.0 0.0
-1.6198782920837402 -0.15997403860092163 0.21727314591407776 1.0 0.0 0.0
2.0990264415740967 0.2231137454509735 -0.2654905617237091 1.0 0.0 0.0
2.071622610092163 0.3569255769252777 -0.2603745758533478 1.0 0.0 0.0
1.843289852142334 0.48611339926719666 -0.2630501985549927 1.0 0.0 0.0
1.8355027437210083 0.6222363710403442 -0.2571680545806885 1.0 0.0 0.0
1.7407095432281494 0.7513084411621094 -0.2549017071723938 1.0 0.0 0.0
1.5345556735992432 0.8868802785873413 -0.2565728425979614 1.0 0.0 0.0
1.7980566024780273 -0.7869088053703308 -0.6754297018051147 1.0 0.0 0.0
1.9583677053451538 -0.6373739242553711 -0.6608335375785828 1.0 0.0 0.0
1.5909366607666016 -0.6729460954666138 -0.09727434068918228 1.0 0.0 0.0
2.0813403129577637 -0.4870774745941162 -0.6479567289352417 1.0 0.0 0.0
2.013765335083008 -0.34944090247154236 -0.6444540619850159 1.0 0.0 0.0
1.7642533779144287 -0.3761952221393585 -0.07941979169845581 1.0 0.0 0.0
1.9352675676345825 -0.21571823954582214 -0.6416985392570496 1.0 0.0 0.0
1.7735710144042969 -0.23838670551776886 -0.0727788656949997 1.0 0.0 0.0
1.947035312652588 -0.07032445818185806 -0.6343157887458801 1.0 0.0 0.0
1.7874420881271362 -0.0962221696972847 -0.06587105989456177 1.0 0.0 0.0
1.9398130178451538 0.07024502754211426 -0.6280876398086548 1.0 0.0 0.0
1.782114863395691 0.049731042236089706 -0.059262290596961975 1.0 0.0 0.0
-0.04182017967104912 -0.005078780930489302 0.5206330418586731 1.0 0.0 0.0
1.943332314491272 0.2109682559967041 -0.6214128136634827 1.0 0.0 0.0
1.7638449668884277 0.19121016561985016 -0.053191863000392914 1.0 0.0 0.0
-0.056365761905908585 0.14700913429260254 0.5275529026985168 1.0 0.0 0.0
2.0536375045776367 0.3525545597076416 -0.6098793148994446 1.0 0.0 0.0
2.0667951107025146 0.49258261919021606 -0.6029101610183716 1.0 0.0 0.0
1.4614691734313965 0.6174938678741455 -0.04067697748541832 1.0 0.0 0.0
1.7618446350097656 0.7754970788955688 -0.6041732430458069 1.0 0.0 0.0
1.8419662714004517 -0.658931314945221 -0.12009602040052414 1.0 0.0 0.0
1.902969479560852 -0.5098538994789124 -0.11251082271337509 1.0 0.0 0.0
1.9587199687957764 -0.3614640533924103 -0.10510579496622086 1.0 0.0 0.0
0.1046990230679512 -0.3763229548931122 0.5050391554832458 1.0 0.0 0.0
1.9593360424041748 -0.20874474942684174 -0.09874837100505829 1.0 0.0 0.0
0.12149211019277573 -0.21768519282341003 0.5116181373596191 1.0 0.0 0.0
1.976805567741394 -0.06538111716508865 -0.09245076030492783 1.0 0.0 0.0
0.11513730883598328 -0.058839354664087296 0.5182250738143921 1.0 0.0 0.0
2.0548453330993652 0.10142926871776581 -0.6850382685661316 1.0 0.0 0.0
1.9350773096084595 0.08355920016765594 -0.08723892271518707 1.0 0.0 0.0
0.08363964408636093 0.1005873903632164 0.5248813629150391 1.0 0.0 0.0
2.085939645767212 0.24822817742824554 -0.6777352690696716 1.0 0.0 0.0
1.8864065408706665 0.23758181929588318 -0.08200697600841522 1.0 0.0 0.0
2.0241687297821045 0.4020623564720154 -0.6743667125701904 1.0 0.0 0.0
1.7924822568893433 0.3891460597515106 -0.07788927853107452 1.0 0.0 0.0
1.9351423978805542 0.5532456040382385 -0.6723828315734863 1.0 0.0 0.0
1.6657850742340088 0.5474124550819397 -0.07424329966306686 1.0 0.0 0.0
1.7210220098495483 0.7061355113983154 -0.6759749054908752 1.0 0.0 0.0
1.7536486387252808 -0.7207929491996765 -0.1419956535100937 1.0 0.0 0.0
1.878324031829834 -0.5633471012115479 -0.1347511112689972 1.0 0.0 0.0
1.9179725646972656 -0.41003963351249695 -0.12931165099143982 1.0 0.0 0.0
-0.09796416759490967 -0.36990779638290405 0.5306136012077332 1.0 0.0 0.0
1.9427180290222168 -0.2469804883003235 -0.12389975041151047 1.0 0.0 0.0
-0.09283258765935898 -0.1942678987979889 0.5360287427902222 1.0 0.0 0.0
1.9283134937286377 -0.08745680749416351 -0.11939453333616257 1.0 0.0 0.0
-0.1028854250907898 -0.023089319467544556 0.5413392186164856 1.0 0.0 0.0
1.8968337774276733 0.07289827615022659 -0.11523017287254333 1.0 0.0 0.0
1.8161922693252563 0.23619097471237183 -0.11196494102478027 1.0 0.0 0.0
1.7566792964935303 0.3993772566318512 -0.10834498703479767 1.0 0.0 0.0
-0.1323765069246292 -0.29365694522857666 0.6128489971160889 1.0 0.0 0.0
-0.1447843611240387 -0.10799755901098251 0.6157787442207336 1.0 0.0 0.0
1.5316202640533447 -0.9074328541755676 -0.6292083263397217 1.0 0.0 0.0
1.9356400966644287 -0.551958441734314 -0.6131069660186768 1.0 0.0 0.0
1.9894099235534668 -0.3677173852920532 -0.6100224852561951 1.0 0.0 0.0
1.9408831596374512 -0.17105986177921295 -0.6103055477142334 1.0 0.0 0.0
1.9410368204116821 0.016800060868263245 -0.6091198921203613 1.0 0.0 0.0
1.9104162454605103 0.20742233097553253 -0.609008252620697 1.0 0.0 0.0
1.9684836864471436 0.3907060921192169 -0.6060908436775208 1.0 0.0 0.0
1.6515262126922607 -0.7370864152908325 -0.31744831800460815 1.0 0.0 0.0
1.9784375429153442 -0.3371514081954956 -0.31272533535957336 1.0 0.0 0.0
-0.176545187830925 -0.1991211473941803 0.5175888538360596 1.0 0.0 0.0
1.9925237894058228 -0.13362276554107666 -0.31382325291633606 1.0 0.0 0.0
-0.1853654980659485 0.018284667283296585 0.5163848400115967 1.0 0.0 0.0
1.9823975563049316 0.07758753001689911 -0.3155810534954071 1.0 0.0 0.0
1.9307787418365479 0.2796950340270996 -0.3182563781738281 1.0 0.0 0.0
1.813447117805481 0.5001492500305176 -0.32259970903396606 1.0 0.0 0.0
1.9352012872695923 -0.684991180896759 -0.6236643195152283 1.0 0.0 0.0
1.9679107666015625 0.4266898036003113 -0.6367743611335754 1.0 0.0 0.0
1.994355320930481 -0.3224617540836334 -0.2799831032752991 1.0 0.0 0.0
1.9789576530456543 -0.06200108304619789 -0.283659428358078 1.0 0.0 0.0
1.8175828456878662 0.2103816717863083 -0.2898128032684326 1.0 0.0 0.0
